0 0 0
-20.5 0 0
-41 0 0
-61.5 0 0
-82 0 0
-102.5 0 0
-123 0 0
-123 0 20.5
-102.5 0 20.5
-82 0 20.5
-61.5 0 20.5
-41 0 20.5
-20.5 0 20.5
0 0 20.5
0 0 41
0 0 61.5
0 0 82
0 0 102.5
0 0 123
0 0 143.5
0 0 164
0 0 184.5
20.5 0 184.5
41 0 184.5
61.5 0 184.5
82 0 184.5
102.5 0 184.5
123 0 184.5
143.5 0 184.5
164 0 184.5
184.5 0 184.5
184.5 0 164
164 0 164
143.5 0 164
123 0 164
102.5 0 164
82 0 164
61.5 0 164
41 0 164
20.5 0 164
20.5 0 143.5
20.5 0 123
20.5 0 102.5
20.5 0 82
20.5 0 61.5
20.5 0 41
20.5 0 20.5
41 0 20.5
61.5 0 20.5
82 0 20.5
102.5 0 20.5
123 0 20.5
143.5 0 20.5
164 0 20.5
184.5 0 20.5
184.5 0 0
164 0 0
143.5 0 0
123 0 0
102.5 0 0
82 0 0
61.5 0 0
41 0 0
20.5 0 0
20.5 20.5 0
41 20.5 0
61.5 20.5 0
82 20.5 0
102.5 20.5 0
123 20.5 0
143.5 20.5 0
164 20.5 0
184.5 20.5 0
184.5 20.5 20.5
164 20.5 20.5
143.5 20.5 20.5
123 20.5 20.5
102.5 20.5 20.5
82 20.5 20.5
61.5 20.5 20.5
41 20.5 20.5
20.5 20.5 20.5
20.5 20.5 41
20.5 20.5 61.5
20.5 20.5 82
20.5 20.5 102.5
20.5 20.5 123
20.5 20.5 143.5
20.5 20.5 164
41 20.5 164
61.5 20.5 164
82 20.5 164
102.5 20.5 164
123 20.5 164
143.5 20.5 164
164 20.5 164
184.5 20.5 164
184.5 20.5 184.5
164 20.5 184.5
143.5 20.5 184.5
123 20.5 184.5
102.5 20.5 184.5
82 20.5 184.5
61.5 20.5 184.5
41 20.5 184.5
20.5 20.5 184.5
0 20.5 184.5
0 20.5 164
0 20.5 143.5
0 20.5 123
0 20.5 102.5
0 20.5 82
0 20.5 61.5
0 20.5 41
0 20.5 20.5
-20.5 20.5 20.5
-41 20.5 20.5
-61.5 20.5 20.5
-82 20.5 20.5
-102.5 20.5 20.5
-123 20.5 20.5
-123 20.5 0
-102.5 20.5 0
-82 20.5 0
-61.5 20.5 0
-41 20.5 0
-20.5 20.5 0
0 20.5 0
0 41 0
-20.5 41 0
-41 41 0
-61.5 41 0
-82 41 0
-102.5 41 0
-123 41 0
-123 41 20.5
-102.5 41 20.5
-82 41 20.5
-61.5 41 20.5
-41 41 20.5
-20.5 41 20.5
0 41 20.5
0 41 41
0 41 61.5
0 41 82
0 41 102.5
0 41 123
0 41 143.5
0 41 164
0 41 184.5
20.5 41 184.5
20.5 41 164
20.5 41 143.5
20.5 41 123
20.5 41 102.5
20.5 41 82
20.5 41 61.5
20.5 41 41
20.5 41 20.5
20.5 41 0
20.5 61.5 0
20.5 61.5 20.5
20.5 61.5 41
20.5 61.5 61.5
20.5 61.5 82
20.5 61.5 102.5
20.5 61.5 123
20.5 61.5 143.5
20.5 61.5 164
20.5 61.5 184.5
0 61.5 184.5
0 61.5 164
0 61.5 143.5
0 61.5 123
0 61.5 102.5
0 61.5 82
0 61.5 61.5
0 61.5 41
0 61.5 20.5
-20.5 61.5 20.5
-41 61.5 20.5
-61.5 61.5 20.5
-82 61.5 20.5
-102.5 61.5 20.5
-123 61.5 20.5
-123 61.5 0
-102.5 61.5 0
-82 61.5 0
-61.5 61.5 0
-41 61.5 0
-20.5 61.5 0
0 61.5 0
0 82 0
-20.5 82 0
-41 82 0
-61.5 82 0
-82 82 0
-102.5 82 0
-123 82 0
-123 82 20.5
-102.5 82 20.5
-82 82 20.5
-61.5 82 20.5
-41 82 20.5
-20.5 82 20.5
0 82 20.5
0 82 41
0 82 61.5
0 82 82
0 82 102.5
0 82 123
0 82 143.5
0 82 164
0 82 184.5
20.5 82 184.5
20.5 82 164
20.5 82 143.5
20.5 82 123
20.5 82 102.5
20.5 82 82
20.5 82 61.5
20.5 82 41
20.5 82 20.5
20.5 82 0
20.5 102.5 0
20.5 102.5 20.5
20.5 102.5 41
20.5 102.5 61.5
20.5 102.5 82
20.5 102.5 102.5
20.5 102.5 123
20.5 102.5 143.5
20.5 102.5 164
20.5 102.5 184.5
0 102.5 184.5
0 102.5 164
0 102.5 143.5
0 102.5 123
0 102.5 102.5
0 102.5 82
0 102.5 61.5
0 102.5 41
0 102.5 20.5
-20.5 102.5 20.5
-41 102.5 20.5
-61.5 102.5 20.5
-82 102.5 20.5
-102.5 102.5 20.5
-123 102.5 20.5
-123 102.5 0
-102.5 102.5 0
-82 102.5 0
-61.5 102.5 0
-41 102.5 0
-20.5 102.5 0
0 102.5 0
0 123 0
-20.5 123 0
-41 123 0
-61.5 123 0
-82 123 0
-102.5 123 0
-123 123 0
-123 123 20.5
-102.5 123 20.5
-82 123 20.5
-61.5 123 20.5
-41 123 20.5
-20.5 123 20.5
0 123 20.5
0 123 41
0 123 61.5
0 123 82
0 123 102.5
0 123 123
0 123 143.5
0 123 164
0 123 184.5
20.5 123 184.5
20.5 123 164
20.5 123 143.5
20.5 123 123
20.5 123 102.5
20.5 123 82
20.5 123 61.5
20.5 123 41
20.5 123 20.5
20.5 123 0
20.5 143.5 0
20.5 143.5 20.5
20.5 143.5 41
20.5 143.5 61.5
20.5 143.5 82
20.5 143.5 102.5
20.5 143.5 123
20.5 143.5 143.5
20.5 143.5 164
20.5 143.5 184.5
0 143.5 184.5
0 143.5 164
0 143.5 143.5
0 143.5 123
0 143.5 102.5
0 143.5 82
0 143.5 61.5
0 143.5 41
0 143.5 20.5
-20.5 143.5 20.5
-41 143.5 20.5
-61.5 143.5 20.5
-82 143.5 20.5
-102.5 143.5 20.5
-123 143.5 20.5
-123 143.5 0
-102.5 143.5 0
-82 143.5 0
-61.5 143.5 0
-41 143.5 0
-20.5 143.5 0
0 143.5 0
0 164 0
-20.5 164 0
-41 164 0
-61.5 164 0
-82 164 0
-102.5 164 0
-123 164 0
-123 164 20.5
-102.5 164 20.5
-82 164 20.5
-61.5 164 20.5
-41 164 20.5
-20.5 164 20.5
0 164 20.5
0 164 41
0 164 61.5
0 164 82
0 164 102.5
0 164 123
0 164 143.5
0 164 164
0 164 184.5
20.5 164 184.5
41 164 184.5
61.5 164 184.5
82 164 184.5
102.5 164 184.5
123 164 184.5
143.5 164 184.5
164 164 184.5
184.5 164 184.5
184.5 164 164
164 164 164
143.5 164 164
123 164 164
102.5 164 164
82 164 164
61.5 164 164
41 164 164
20.5 164 164
20.5 164 143.5
20.5 164 123
20.5 164 102.5
20.5 164 82
20.5 164 61.5
20.5 164 41
20.5 164 20.5
41 164 20.5
61.5 164 20.5
82 164 20.5
102.5 164 20.5
123 164 20.5
143.5 164 20.5
164 164 20.5
184.5 164 20.5
184.5 164 0
164 164 0
143.5 164 0
123 164 0
102.5 164 0
82 164 0
61.5 164 0
41 164 0
20.5 164 0
20.5 184.5 0
41 184.5 0
61.5 184.5 0
82 184.5 0
102.5 184.5 0
123 184.5 0
143.5 184.5 0
164 184.5 0
184.5 184.5 0
184.5 184.5 20.5
164 184.5 20.5
143.5 184.5 20.5
123 184.5 20.5
102.5 184.5 20.5
82 184.5 20.5
61.5 184.5 20.5
41 184.5 20.5
20.5 184.5 20.5
20.5 184.5 41
20.5 184.5 61.5
20.5 184.5 82
20.5 184.5 102.5
20.5 184.5 123
20.5 184.5 143.5
20.5 184.5 164
41 184.5 164
61.5 184.5 164
82 184.5 164
102.5 184.5 164
123 184.5 164
143.5 184.5 164
164 184.5 164
184.5 184.5 164
184.5 184.5 184.5
164 184.5 184.5
143.5 184.5 184.5
123 184.5 184.5
102.5 184.5 184.5
82 184.5 184.5
61.5 184.5 184.5
41 184.5 184.5
20.5 184.5 184.5
0 184.5 184.5
0 184.5 164
0 184.5 143.5
0 184.5 123
0 184.5 102.5
0 184.5 82
0 184.5 61.5
0 184.5 41
0 184.5 20.5
-20.5 184.5 20.5
-41 184.5 20.5
-61.5 184.5 20.5
-82 184.5 20.5
-102.5 184.5 20.5
-123 184.5 20.5
-123 184.5 0
-102.5 184.5 0
-82 184.5 0
-61.5 184.5 0
-41 184.5 0
-20.5 184.5 0
0 184.5 0
